99
285
0.000000 0.000000 0.000000 0
0.000000 0.000000 0.000000 0
0.000000 0.000000 0.000000 0
0.000000 0.000000 0.000000 0
0.000000 0.000000 0.000000 0
0.000000 0.000000 0.000000 0
0.000000 0.000000 0.000000 0
0.000000 0.000000 0.000000 0
0.000000 0.000000 0.000000 0
0.000000 0.000000 0.000000 0
0.000000 0.000000 0.000000 0
0.000000 0.000000 0.000000 0
0.000000 0.000000 0.000000 0
0.000000 0.000000 0.000000 0
0.000000 0.000000 0.000000 0
0.000000 0.000000 0.000000 0
0.000000 0.000000 0.000000 0
0.000000 0.000000 0.000000 0
0.000000 0.000000 0.000000 0
0.000000 0.000000 0.000000 0
0.000000 0.000000 0.000000 0
0.000000 0.000000 0.000000 0
0.000000 0.000000 0.000000 0
0.000000 0.000000 0.000000 0
0.000000 0.000000 0.000000 0
0.000000 0.000000 0.000000 0
0.000000 0.000000 0.000000 0
0.000000 0.000000 0.000000 0
0.000000 0.000000 0.000000 0
0.000000 0.000000 0.000000 0
0.000000 0.000000 0.000000 0
0.000000 0.000000 0.000000 0
0.000000 0.000000 0.000000 0
0.000000 0.000000 0.000000 0
0.000000 0.000000 0.000000 0
0.000000 0.000000 0.000000 0
0.000000 0.000000 0.000000 0
0.000000 0.000000 0.000000 0
0.000000 0.000000 0.000000 0
13.696494 7.087197 -52.327534 -902
13.694619 7.115592 -52.318222 -909
13.692218 7.145245 -52.314133 -877
13.686965 7.172170 -52.299156 -891
13.686418 7.198770 -52.294884 -846
13.686863 7.224962 -52.287170 -883
13.684167 7.252280 -52.279522 -887
13.684239 7.282287 -52.272820 -914
13.680643 7.310061 -52.268982 -923
13.679339 7.337170 -52.259426 -833
13.675126 7.366748 -52.246021 -870
13.673103 7.392252 -52.243324 -884
13.671301 7.417237 -52.236660 -887
13.668337 7.449326 -52.228035 -878
13.665726 7.471072 -52.215862 -852
13.664244 7.503017 -52.210472 -901
13.662392 7.529813 -52.203632 -888
13.663096 7.558868 -52.194538 -858
13.660501 7.588044 -52.187290 -882
13.657976 7.614166 -52.180298 -881
13.659012 7.643102 -52.174870 -873
13.650229 7.669581 -52.163242 -838
13.650045 7.696013 -52.157944 -883
13.651845 7.723805 -52.153023 -846
13.650400 7.752661 -52.147762 -838
13.645787 7.777056 -52.142387 -857
13.645576 7.806788 -52.129810 -849
13.640783 7.832645 -52.126167 -871
13.641920 7.863420 -52.116344 -865
13.638699 7.891019 -52.111504 -885
13.635247 7.918139 -52.103363 -875
13.635248 7.945832 -52.093990 -862
13.629468 7.972748 -52.093788 -871
13.633395 8.004381 -52.085018 -865
13.629626 8.031920 -52.075680 -850
13.626668 8.058619 -52.064629 -889
13.626569 8.082596 -52.059643 -875
13.622235 8.112334 -52.052963 -854
13.621517 8.138331 -52.040840 -884
13.619070 8.165397 -52.036537 -885
13.748235 8.273149 -52.520252 -1585
14.101615 8.514243 -53.881840 -917
14.084691 8.535561 -53.810036 -915
14.061066 8.551031 -53.739895 -897
14.045090 8.572137 -53.671715 -918
14.029135 8.592649 -53.608570 -913
14.009559 8.609329 -53.534054 -907
13.994207 8.629439 -53.473225 -930
13.978093 8.648271 -53.404549 -887
13.959414 8.667307 -53.338402 -930
13.939837 8.686609 -53.266376 -927
13.923210 8.705658 -53.200676 -916
13.905210 8.719959 -53.141949 -928
13.890302 8.742505 -53.070610 -896
13.870139 8.759367 -53.001198 -896
13.852089 8.776354 -52.944702 -905
13.838564 8.798800 -52.873802 -920
13.821516 8.816298 -52.808945 -882
13.801343 8.831743 -52.744308 -904
13.786451 8.852492 -52.680420 -872
13.769242 8.870723 -52.629494 -883
13.758107 8.892374 -52.575081 -871
13.744525 8.914548 -52.521049 -872
13.729769 8.933639 -52.460102 -908
13.712342 8.949197 -52.393784 -924
13.697571 8.969937 -52.340046 -899
13.682094 8.990069 -52.290840 -901
13.663431 9.004696 -52.231815 -814
13.653840 9.029398 -52.171387 -858
13.638597 9.045628 -52.118210 -861
13.620981 9.065825 -52.055988 -888
13.607065 9.082439 -52.005455 -877
13.590598 9.098933 -51.947582 -862
13.577648 9.120337 -51.888802 -868
13.564597 9.140537 -51.834419 -881
13.546977 9.156644 -51.779289 -846
13.529794 9.179452 -51.716331 -847
13.518388 9.202323 -51.656342 -844
13.503300 9.217550 -51.603699 -837
13.487164 9.234260 -51.549431 -877
13.472925 9.255552 -51.492924 -872
13.437742 9.257051 -51.354042 -922
13.416769 9.272883 -51.278912 -848
13.415798 9.299599 -51.284882 -890
13.417544 9.329487 -51.287052 -895
13.422878 9.363343 -51.293484 -857
13.423111 9.395250 -51.296989 -860
13.421970 9.421889 -51.302311 -894
13.423567 9.450274 -51.306263 -855
13.425604 9.481238 -51.307190 -864
13.426012 9.511051 -51.316078 -871
13.427083 9.539092 -51.318024 -869
13.425591 9.564915 -51.329090 -897
13.429321 9.594046 -51.336456 -851
13.433120 9.629602 -51.341774 -852
13.431117 9.657552 -51.343811 -872
13.436027 9.687152 -51.353313 -890
13.436620 9.715940 -51.355808 -874
13.437417 9.746734 -51.359093 -827
13.439282 9.773377 -51.366417 -883
13.436016 9.806005 -51.363682 -849
13.442734 9.837996 -51.375351 -862
13.442491 9.870581 -51.381783 -922
13.447055 9.898787 -51.389946 -914
13.449273 9.926757 -51.393906 -903
13.446374 9.958509 -51.399658 -868
13.450465 9.989068 -51.403667 -913
13.448516 10.015368 -51.413021 -881
13.451619 10.039085 -51.420303 -891
13.450571 10.071964 -51.421307 -871
13.457076 10.107221 -51.429813 -896
13.455380 10.134679 -51.428299 -852
13.458208 10.165480 -51.436954 -882
13.460174 10.195644 -51.442318 -874
13.459244 10.228125 -51.450878 -902
13.463281 10.258124 -51.454659 -850
13.462739 10.285085 -51.459915 -866
13.463168 10.313415 -51.468887 -912
13.464602 10.348104 -51.465145 -890
13.464186 10.372704 -51.470860 -901
13.466254 10.402061 -51.481354 -893
13.469492 10.436135 -51.486862 -882
13.472368 10.467906 -51.493324 -848
13.472039 10.497143 -51.497055 -854
13.474024 10.529152 -51.504871 -902
13.474665 10.556846 -51.509899 -894
13.474099 10.584228 -51.510330 -873
13.480225 10.620983 -51.522110 -880
13.478069 10.648047 -51.521229 -902
13.480140 10.675210 -51.529335 -904
13.482918 10.709662 -51.533077 -873
13.483330 10.739573 -51.539627 -834
13.487475 10.770013 -51.541435 -858
13.485913 10.798822 -51.552322 -870
13.484551 10.828126 -51.549717 -890
13.490128 10.858186 -51.561722 -857
13.486876 10.888328 -51.563801 -884
13.489736 10.918097 -51.565449 -879
13.491287 10.947921 -51.573971 -896
13.491158 10.979836 -51.580845 -854
13.495778 11.009970 -51.586823 -930
13.496140 11.041666 -51.586075 -890
13.494306 11.067700 -51.588787 -854
13.499722 11.102755 -51.600204 -889
13.495890 11.126575 -51.604782 -897
13.498590 11.160528 -51.608215 -883
13.500200 11.185645 -51.614552 -889
13.500758 11.218382 -51.621693 -863
13.503254 11.251094 -51.621960 -876
13.502063 11.278839 -51.629505 -884
13.507242 11.314235 -51.632889 -853
13.506733 11.341255 -51.633537 -862
13.504924 11.372144 -51.641132 -861
13.508466 11.403278 -51.645370 -884
13.509635 11.435506 -51.652451 -898
13.510470 11.461684 -51.660606 -900
13.514701 11.497973 -51.665131 -923
13.516109 11.527704 -51.665966 -882
13.512869 11.553422 -51.672836 -865
13.517699 11.588510 -51.677258 -905
13.518964 11.617261 -51.682297 -916
13.517907 11.647792 -51.690403 -922
13.520811 11.679116 -51.692200 -899
13.522834 11.709564 -51.692989 -868
13.522779 11.741758 -51.702553 -865
13.523853 11.771540 -51.709255 -907
13.526312 11.802261 -51.702209 -893
13.525054 11.830173 -51.709530 -855
13.523694 11.860410 -51.718853 -884
13.528107 11.891242 -51.726391 -880
13.527971 11.921566 -51.735641 -913
13.531965 11.954303 -51.734447 -889
13.533702 11.984245 -51.741291 -865
13.535395 12.015537 -51.745602 -931
13.533249 12.042753 -51.749535 -851
13.537526 12.080095 -51.751835 -860
13.536212 12.106809 -51.758938 -889
13.539330 12.140284 -51.763943 -857
13.540116 12.169453 -51.767162 -900
13.541092 12.201225 -51.773502 -882
13.541604 12.227743 -51.773270 -866
13.543474 12.262250 -51.783051 -910
13.546218 12.292180 -51.788971 -852
13.543936 12.323805 -51.792419 -875
13.543494 12.348449 -51.798077 -903
13.549264 12.385053 -51.798897 -893
13.549436 12.417790 -51.809338 -932
0.000000 0.000000 0.000000 0
13.553643 12.480429 -51.816315 -914
13.553339 12.509162 -51.820141 -918
13.551383 12.536280 -51.820034 -934
13.553889 12.567373 -51.825062 -893
13.557293 12.599408 -51.831127 -937
13.556606 12.632277 -51.833523 -1009
0.000000 0.000000 0.000000 0
13.558373 12.693797 -51.838329 -911
13.559076 12.718721 -51.838806 -875
13.560431 12.751639 -51.848999 -924
13.561194 12.782921 -51.852150 -859
13.560982 12.812311 -51.861103 -879
13.561072 12.844086 -51.866459 -883
13.565233 12.877212 -51.868252 -887
13.561679 12.904974 -51.876385 -915
13.570773 12.938927 -51.880291 -894
13.570406 12.972151 -51.886288 -903
13.569958 13.002845 -51.889599 -882
13.569260 13.029629 -51.887131 -877
13.574411 13.064340 -51.895092 -886
13.574955 13.095870 -51.906952 -852
13.575579 13.125947 -51.907158 -851
13.574273 13.154590 -51.907173 -892
13.577095 13.186888 -51.913391 -894
13.580061 13.219272 -51.922550 -906
13.579993 13.251141 -51.924919 -892
13.578983 13.283173 -51.930862 -928
0.000000 0.000000 0.000000 0
13.585359 13.346908 -51.938919 -910
13.579146 13.372833 -51.939316 -911
13.583846 13.406701 -51.943150 -940
13.583261 13.432806 -51.950672 -904
13.586339 13.472032 -51.953144 -871
13.584145 13.497146 -51.956909 -936
13.587111 13.529747 -51.963676 -876
13.589001 13.561293 -51.966331 -867
13.591249 13.591977 -51.967949 -909
13.593000 13.629609 -51.979694 -880
13.594353 13.658028 -51.982666 -894
13.593711 13.688684 -51.990013 -907
13.598658 13.723641 -51.992393 -918
13.596467 13.752117 -51.993813 -898
13.596006 13.782404 -51.999454 -846
13.595889 13.808645 -52.001591 -899
13.597825 13.845548 -52.002071 -895
13.600364 13.878378 -52.014374 -974
13.601389 13.910330 -52.020912 -905
13.604956 13.941300 -52.022770 -985
13.605653 13.970407 -52.025642 -979
0.000000 0.000000 0.000000 0
13.606378 14.033566 -52.040833 -929
13.610437 14.070259 -52.044605 -1535
0.000000 0.000000 0.000000 0
0.000000 0.000000 0.000000 0
0.000000 0.000000 0.000000 0
0.000000 0.000000 0.000000 0
0.000000 0.000000 0.000000 0
0.000000 0.000000 0.000000 0
0.000000 0.000000 0.000000 0
0.000000 0.000000 0.000000 0
0.000000 0.000000 0.000000 0
0.000000 0.000000 0.000000 0
0.000000 0.000000 0.000000 0
0.000000 0.000000 0.000000 0
0.000000 0.000000 0.000000 0
0.000000 0.000000 0.000000 0
0.000000 0.000000 0.000000 0
0.000000 0.000000 0.000000 0
0.000000 0.000000 0.000000 0
0.000000 0.000000 0.000000 0
0.000000 0.000000 0.000000 0
0.000000 0.000000 0.000000 0
0.000000 0.000000 0.000000 0
0.000000 0.000000 0.000000 0
0.000000 0.000000 0.000000 0
0.000000 0.000000 0.000000 0
0.000000 0.000000 0.000000 0
0.000000 0.000000 0.000000 0
0.000000 0.000000 0.000000 0
0.000000 0.000000 0.000000 0
0.000000 0.000000 0.000000 0
0.000000 0.000000 0.000000 0
0.000000 0.000000 0.000000 0
0.000000 0.000000 0.000000 0
0.000000 0.000000 0.000000 0
0.000000 0.000000 0.000000 0
0.000000 0.000000 0.000000 0
0.000000 0.000000 0.000000 0
0.000000 0.000000 0.000000 0
0.000000 0.000000 0.000000 0
0.000000 0.000000 0.000000 0
0.000000 0.000000 0.000000 0
0.000000 0.000000 0.000000 0
0.000000 0.000000 0.000000 0
0.000000 0.000000 0.000000 0
0.000000 0.000000 0.000000 0
13.757203 7.069320 -52.404282 -863
13.756328 7.099215 -52.396381 -903
13.751719 7.121264 -52.391083 -917
13.752010 7.156411 -52.380451 -870
13.743349 7.179741 -52.366993 -851
13.748031 7.212529 -52.365803 -897
13.747842 7.237811 -52.355671 -875
13.741221 7.263120 -52.352371 -919
13.742700 7.292052 -52.341404 -899
13.736762 7.319255 -52.333492 -871
13.735902 7.346339 -52.328041 -889
13.734503 7.377755 -52.313370 -883
13.734130 7.405108 -52.314583 -890
13.728352 7.432378 -52.307278 -861
13.728491 7.462729 -52.293629 -844
13.727282 7.486513 -52.286835 -884
13.726603 7.514297 -52.282082 -879
13.723026 7.542079 -52.273525 -849
13.720602 7.569519 -52.262146 -872
13.718500 7.599601 -52.251999 -864
13.713987 7.624112 -52.247063 -859
13.714278 7.653295 -52.238804 -906
13.708888 7.679785 -52.230537 -865
13.712370 7.711905 -52.224838 -922
13.708342 7.733869 -52.219303 -866
13.706306 7.763676 -52.211826 -913
13.704690 7.789950 -52.201099 -904
13.702003 7.817336 -52.203110 -888
13.700183 7.845962 -52.191624 -882
13.695856 7.871736 -52.182587 -885
13.697165 7.902091 -52.178219 -862
13.694326 7.932710 -52.172482 -895
13.693219 7.961107 -52.163712 -887
13.691577 7.987676 -52.155304 -872
13.686190 8.012938 -52.151806 -903
13.683222 8.040303 -52.140743 -842
13.687230 8.071403 -52.132278 -842
13.682614 8.093251 -52.122108 -903
13.679730 8.120995 -52.113766 -826
13.677568 8.150745 -52.110580 -863
13.782251 8.241587 -52.499699 -1439
14.163004 8.496895 -53.969036 -902
14.151842 8.521169 -53.902012 -892
14.128643 8.535921 -53.826313 -918
14.111530 8.558841 -53.761448 -903
14.088233 8.573205 -53.692741 -989
14.078635 8.597414 -53.626858 -914
14.056523 8.614810 -53.557701 -904
14.037111 8.630769 -53.491402 -921
14.019881 8.649700 -53.423576 -953
14.005932 8.672017 -53.360905 -945
13.987640 8.689258 -53.291504 -891
13.970675 8.710310 -53.222294 -898
13.952925 8.727228 -53.159828 -939
13.935891 8.746570 -53.092789 -948
13.916263 8.764331 -53.020752 -911
13.900315 8.783705 -52.962711 -859
13.882226 8.801664 -52.896515 -904
13.867462 8.821665 -52.830830 -955
13.850921 8.839594 -52.772938 -940
13.831245 8.857596 -52.700706 -909
13.811957 8.873769 -52.637173 -872
13.800279 8.895107 -52.580853 -890
13.789518 8.918724 -52.523239 -841
13.771015 8.936611 -52.467518 -908
13.756911 8.954854 -52.409241 -905
13.738888 8.971925 -52.352882 -868
13.727722 8.992837 -52.303387 -855
13.715476 9.013229 -52.247395 -921
13.697073 9.029414 -52.194363 -895
13.682830 9.049858 -52.128399 -876
13.662910 9.066785 -52.069550 -872
13.646614 9.085509 -52.017300 -874
13.635286 9.105056 -51.957649 -885
13.619810 9.123436 -51.903732 -875
13.607949 9.144538 -51.846886 -887
13.592544 9.166176 -51.790874 -864
13.575089 9.185130 -51.727043 -893
13.562355 9.202489 -51.678772 -883
13.548315 9.222056 -51.618439 -850
13.532958 9.242642 -51.564953 -870
13.492806 9.242729 -51.414669 -1001
13.477317 9.259041 -51.344105 -928
13.470457 9.282317 -51.334736 -892
13.473448 9.315148 -51.339283 -846
13.471079 9.344442 -51.335236 -835
13.475767 9.371708 -51.346203 -876
13.474832 9.403008 -51.357052 -834
13.479511 9.435260 -51.353874 -836
13.478600 9.461064 -51.364773 -873
13.478909 9.491247 -51.368549 -866
13.483105 9.521524 -51.375305 -870
13.483411 9.547621 -51.376678 -863
13.481582 9.577548 -51.386486 -888
13.486087 9.603971 -51.392025 -876
13.489649 9.642682 -51.394066 -851
13.488158 9.670013 -51.402786 -880
13.489096 9.701744 -51.404243 -824
13.491735 9.729969 -51.409786 -826
13.492936 9.758622 -51.414581 -882
13.492516 9.787170 -51.422657 -835
13.492659 9.817997 -51.432896 -885
13.498376 9.852778 -51.436020 -861
13.498286 9.878289 -51.440601 -874
13.499992 9.906942 -51.444950 -910
13.498545 9.936231 -51.446770 -873
13.502559 9.969697 -51.459934 -862
13.502857 9.999632 -51.461308 -896
13.507759 10.034363 -51.470768 -871
13.507906 10.056206 -51.478584 -892
13.509731 10.088922 -51.481064 -884
13.508707 10.119391 -51.482132 -855
13.510527 10.149457 -51.486923 -885
13.510003 10.177543 -51.501717 -887
13.513419 10.208511 -51.500755 -884
13.514573 10.240849 -51.507767 -886
13.516743 10.269106 -51.509144 -906
13.516355 10.298075 -51.514992 -832
13.518759 10.328033 -51.521999 -850
13.519253 10.359124 -51.528866 -857
13.521245 10.388618 -51.536671 -904
13.524307 10.419203 -51.536724 -888
13.526504 10.453233 -51.545334 -879
13.527660 10.480878 -51.549950 -856
13.526913 10.506989 -51.556778 -868
13.531137 10.543045 -51.558918 -891
13.531539 10.572285 -51.565414 -865
13.532104 10.601378 -51.567795 -844
13.531142 10.632186 -51.576218 -897
13.534041 10.661595 -51.582729 -887
13.535807 10.690750 -51.584938 -897
13.534758 10.721694 -51.590664 -864
13.538872 10.755090 -51.594727 -841
13.536979 10.780372 -51.606678 -852
13.537103 10.811058 -51.607395 -909
13.540894 10.842516 -51.607822 -883
13.541595 10.872119 -51.615471 -913
13.545474 10.905231 -51.620995 -890
13.547444 10.934943 -51.628719 -868
13.547938 10.966603 -51.630848 -865
13.545259 10.992124 -51.637447 -880
13.551356 11.025046 -51.644287 -874
13.550037 11.052929 -51.646603 -896
13.552674 11.084955 -51.649765 -894
13.552794 11.116540 -51.657578 -864
13.554995 11.145727 -51.659061 -877
13.556402 11.177441 -51.667027 -889
13.558369 11.205535 -51.672352 -900
13.555651 11.232991 -51.678837 -873
13.557442 11.264728 -51.683525 -880
13.558753 11.291683 -51.686344 -898
13.563209 11.329853 -51.694088 -894
13.562276 11.356068 -51.690739 -892
13.562522 11.386974 -51.703781 -880
13.562862 11.414763 -51.707664 -889
13.569489 11.451881 -51.709404 -864
13.569107 11.478811 -51.715286 -905
13.567667 11.508982 -51.721916 -870
13.568031 11.539483 -51.723537 -904
13.570975 11.570566 -51.730213 -884
13.572345 11.605226 -51.733315 -897
13.575315 11.633580 -51.744820 -887
13.572490 11.664022 -51.743820 -924
13.576592 11.695025 -51.752525 -887
13.578546 11.725071 -51.760181 -876
13.583193 11.759353 -51.766228 -890
13.581481 11.787770 -51.767075 -866
13.577828 11.815644 -51.762905 -888
13.584902 11.847272 -51.773396 -874
13.584208 11.878251 -51.782883 -921
13.582417 11.909282 -51.781067 -876
13.587070 11.937212 -51.789463 -911
13.587318 11.970684 -51.795418 -846
13.588500 12.002700 -51.800152 -906
13.590456 12.031337 -51.800674 -869
13.593846 12.062398 -51.809040 -892
13.594554 12.095298 -51.811981 -877
13.593054 12.121992 -51.815994 -880
13.596652 12.157087 -51.825188 -898
13.592175 12.185131 -51.827412 -911
13.593225 12.215543 -51.824493 -886
13.597082 12.245210 -51.834621 -858
13.599052 12.277633 -51.837608 -880
13.599491 12.307943 -51.837124 -870
13.602718 12.341948 -51.849648 -924
13.601381 12.367282 -51.847137 -911
13.603080 12.398661 -51.853828 -948
13.606265 12.433316 -51.866203 -925
13.608594 12.466144 -51.870544 -1083
13.609022 12.498214 -51.874798 -876
13.608239 12.522285 -51.871998 -906
13.609804 12.553514 -51.880566 -931
13.607575 12.582144 -51.884212 -923
13.609827 12.615245 -51.881119 -933
0.000000 0.000000 0.000000 0
13.608866 12.675441 -51.894585 -837
13.613263 12.708658 -51.899643 -952
13.614446 12.736521 -51.904339 -872
13.616144 12.768884 -51.906284 -855
13.619128 12.801826 -51.913113 -924
13.617991 12.825279 -51.918491 -881
13.620281 12.861975 -51.925091 -876
13.621288 12.894923 -51.926781 -915
13.622981 12.923978 -51.933437 -884
13.621897 12.957105 -51.939095 -901
13.624806 12.987117 -51.938457 -890
13.623419 13.019264 -51.945347 -897
13.626314 13.050399 -51.949429 -909
13.628407 13.081982 -51.952858 -882
13.626436 13.113531 -51.959904 -869
13.628303 13.142283 -51.964836 -875
13.630177 13.173126 -51.965031 -918
13.632732 13.205846 -51.970222 -929
13.631377 13.231145 -51.974792 -902
13.632403 13.268028 -51.978970 -885
13.636734 13.299453 -51.986126 -1018
13.633286 13.328238 -51.992321 -885
13.639553 13.363717 -51.999706 -932
13.637018 13.391837 -51.997429 -908
13.638407 13.421958 -52.007713 -898
13.641339 13.454073 -52.007164 -887
13.641220 13.490319 -52.016525 -971
13.644121 13.519084 -52.020603 -912
13.642739 13.546463 -52.022717 -942
13.644128 13.578712 -52.028233 -919
13.646387 13.609569 -52.025116 -967
13.647641 13.644222 -52.032520 -905
13.651914 13.676465 -52.037064 -936
13.650461 13.704999 -52.043697 -960
13.651739 13.740428 -52.048809 -886
13.652875 13.770629 -52.050964 -867
13.649470 13.798411 -52.054939 -928
13.652215 13.828380 -52.060825 -1007
13.655441 13.866741 -52.061420 -957
13.654685 13.892930 -52.065895 -1026
13.658503 13.929837 -52.075905 -961
13.659398 13.960510 -52.077145 -993
13.655677 13.987260 -52.087093 -1178
13.659372 14.022339 -52.087059 -1099
0.000000 0.000000 0.000000 0
0.000000 0.000000 0.000000 0
0.000000 0.000000 0.000000 0
0.000000 0.000000 0.000000 0
0.000000 0.000000 0.000000 0
0.000000 0.000000 0.000000 0
0.000000 0.000000 0.000000 0
0.000000 0.000000 0.000000 0
0.000000 0.000000 0.000000 0
0.000000 0.000000 0.000000 0
0.000000 0.000000 0.000000 0
0.000000 0.000000 0.000000 0
0.000000 0.000000 0.000000 0
0.000000 0.000000 0.000000 0
0.000000 0.000000 0.000000 0
0.000000 0.000000 0.000000 0
0.000000 0.000000 0.000000 0
0.000000 0.000000 0.000000 0
0.000000 0.000000 0.000000 0
0.000000 0.000000 0.000000 0
0.000000 0.000000 0.000000 0
0.000000 0.000000 0.000000 0
0.000000 0.000000 0.000000 0
0.000000 0.000000 0.000000 0
0.000000 0.000000 0.000000 0
0.000000 0.000000 0.000000 0
0.000000 0.000000 0.000000 0
0.000000 0.000000 0.000000 0
0.000000 0.000000 0.000000 0
0.000000 0.000000 0.000000 0
0.000000 0.000000 0.000000 0
0.000000 0.000000 0.000000 0
0.000000 0.000000 0.000000 0
0.000000 0.000000 0.000000 0
0.000000 0.000000 0.000000 0
0.000000 0.000000 0.000000 0
0.000000 0.000000 0.000000 0
0.000000 0.000000 0.000000 0
0.000000 0.000000 0.000000 0
0.000000 0.000000 0.000000 0
0.000000 0.000000 0.000000 0
0.000000 0.000000 0.000000 0
0.000000 0.000000 0.000000 0
0.000000 0.000000 0.000000 0
13.823134 7.030437 -52.485676 -880
13.821180 7.051124 -52.483257 -897
13.817670 7.080637 -52.472614 -889
13.814610 7.109763 -52.458858 -879
13.812387 7.137431 -52.457886 -827
13.808430 7.165134 -52.447926 -843
13.812755 7.196545 -52.445351 -888
13.810236 7.225618 -52.431248 -858
13.805183 7.246529 -52.431507 -873
13.802464 7.274861 -52.421436 -867
13.803759 7.304059 -52.416969 -912
13.801740 7.333682 -52.407185 -873
13.798745 7.361230 -52.396065 -865
13.795965 7.386416 -52.390537 -861
13.795600 7.416591 -52.384617 -883
13.790183 7.445026 -52.376324 -856
13.790101 7.473786 -52.369045 -897
13.789392 7.499444 -52.366577 -890
13.787877 7.527101 -52.351475 -861
13.784049 7.554818 -52.346790 -950
13.777514 7.582023 -52.339050 -862
13.780175 7.609442 -52.334972 -929
13.778122 7.639572 -52.320248 -872
13.773618 7.666249 -52.308201 -844
13.772897 7.695605 -52.305702 -908
13.771708 7.723094 -52.294239 -857
13.769595 7.745223 -52.293610 -893
13.767415 7.776240 -52.285614 -865
13.765673 7.803778 -52.279240 -873
13.763360 7.831611 -52.270706 -887
13.761380 7.858388 -52.263420 -875
13.759485 7.886223 -52.263664 -895
13.755956 7.912049 -52.245712 -908
13.753679 7.940562 -52.242111 -886
13.754818 7.972726 -52.237114 -884
13.750885 7.999935 -52.224831 -834
13.747561 8.025350 -52.217224 -829
13.744645 8.053207 -52.213585 -869
13.743575 8.081659 -52.204990 -890
13.741961 8.105517 -52.199059 -876
13.737217 8.133529 -52.188488 -905
13.746317 8.166604 -52.208908 -1327
14.230133 8.484379 -54.057690 -977
14.213032 8.506566 -53.990570 -975
14.195651 8.524025 -53.922356 -850
14.179280 8.544220 -53.855526 -939
14.159418 8.563611 -53.780399 -923
14.140665 8.581224 -53.719315 -953
14.126478 8.601339 -53.648483 -949
14.106590 8.620583 -53.578175 -907
14.090669 8.641071 -53.515545 -959
14.071891 8.658570 -53.446976 -1007
14.053809 8.676429 -53.381039 -913
14.034100 8.696123 -53.311378 -989
14.019625 8.715225 -53.249336 -923
13.998472 8.729553 -53.179035 -860
13.981981 8.751557 -53.116707 -939
13.965709 8.770230 -53.045441 -935
13.947960 8.785739 -52.983154 -926
13.931239 8.807643 -52.917522 -922
13.914931 8.829107 -52.853462 -883
13.893749 8.842873 -52.790218 -908
13.882694 8.863890 -52.726734 -949
13.865369 8.882994 -52.661224 -915
13.845800 8.900990 -52.601677 -913
13.833022 8.921360 -52.543762 -873
13.816463 8.940028 -52.488373 -861
13.803535 8.961194 -52.432327 -834
13.785031 8.975499 -52.374310 -887
13.775134 8.998866 -52.320194 -840
13.757283 9.016072 -52.257462 -885
13.741503 9.035585 -52.204987 -900
13.728721 9.057186 -52.149536 -849
13.713309 9.072942 -52.093643 -901
13.696334 9.092586 -52.031845 -859
13.683090 9.112228 -51.977036 -884
13.663758 9.130260 -51.918186 -873
13.650011 9.148145 -51.868580 -905
13.634845 9.164477 -51.806469 -850
13.618234 9.186524 -51.746037 -789
13.606274 9.209507 -51.686665 -865
13.589615 9.225943 -51.637856 -877
13.557740 9.231115 -51.507607 -995
13.535994 9.245483 -51.422924 -936
13.524142 9.266052 -51.387589 -879
13.524390 9.294531 -51.388763 -864
13.528854 9.326387 -51.394165 -851
13.530145 9.354985 -51.399288 -853
13.531397 9.384397 -51.401913 -852
13.532578 9.418272 -51.409019 -908
13.532941 9.446448 -51.415340 -868
13.536030 9.477196 -51.417877 -862
13.535643 9.503422 -51.423679 -882
13.538151 9.534382 -51.431076 -918
13.538421 9.564805 -51.432343 -862
13.542184 9.594417 -51.442139 -883
13.539860 9.621990 -51.445339 -839
13.544628 9.658110 -51.456631 -872
13.543242 9.681634 -51.460987 -895
13.545249 9.713338 -51.461777 -884
13.547157 9.742104 -51.466881 -844
13.547544 9.771859 -51.470943 -876
13.548372 9.801323 -51.476681 -867
13.551847 9.835565 -51.480698 -887
13.554880 9.864378 -51.492424 -907
13.552299 9.890220 -51.499355 -894
13.556218 9.922347 -51.505028 -861
13.555150 9.950716 -51.508293 -882
13.560476 9.987003 -51.519333 -865
13.559860 10.013010 -51.519558 -887
13.559937 10.040824 -51.529518 -883
13.560350 10.070952 -51.538403 -904
13.566935 10.101741 -51.542355 -861
13.568519 10.135383 -51.546272 -882
13.568511 10.162941 -51.551182 -895
13.568957 10.192713 -51.557835 -919
13.569316 10.222616 -51.561790 -867
13.573138 10.257115 -51.569466 -873
13.574115 10.283960 -51.573376 -870
13.570230 10.311720 -51.580147 -862
13.575743 10.342229 -51.582378 -897
13.578622 10.376153 -51.593552 -902
13.577534 10.407155 -51.596760 -908
13.578014 10.431356 -51.596420 -872
13.582510 10.467722 -51.606659 -845
13.583581 10.494362 -51.615650 -860
13.583039 10.522781 -51.611458 -873
13.587122 10.557631 -51.620121 -908
13.588822 10.588881 -51.626808 -882
13.586745 10.612152 -51.628571 -868
13.590138 10.647584 -51.636978 -871
13.589723 10.674216 -51.642715 -890
13.596778 10.708565 -51.650803 -914
13.593255 10.738026 -51.658974 -868
13.594838 10.769592 -51.660484 -878
13.596130 10.795776 -51.663223 -875
13.600244 10.829862 -51.667248 -850
13.600954 10.858869 -51.674908 -862
13.600610 10.886887 -51.680916 -866
13.600043 10.917082 -51.688473 -927
13.602034 10.947322 -51.689159 -838
13.605900 10.983305 -51.699356 -898
13.605671 11.010679 -51.698700 -868
13.603849 11.036467 -51.706200 -887
13.608679 11.071698 -51.705845 -863
13.608210 11.099692 -51.711388 -892
13.611107 11.133085 -51.717884 -885
13.613939 11.161273 -51.726475 -945
13.610209 11.192307 -51.729160 -938
13.617631 11.223596 -51.736210 -911
13.614660 11.249148 -51.739368 -882
13.616238 11.279198 -51.747955 -891
13.618933 11.313909 -51.751320 -908
13.618405 11.343208 -51.756664 -897
13.619440 11.372019 -51.756069 -907
13.621712 11.405216 -51.767307 -898
13.622853 11.433994 -51.769482 -852
13.624894 11.466543 -51.777470 -881
13.628118 11.498003 -51.782822 -868
13.624982 11.526020 -51.785381 -890
13.628794 11.561917 -51.790623 -850
13.629708 11.589293 -51.791924 -897
13.631063 11.621196 -51.799671 -897
13.632736 11.650999 -51.806252 -870
13.630412 11.681783 -51.809540 -899
13.635946 11.710022 -51.816494 -866
13.635655 11.742968 -51.820393 -948
13.637830 11.775274 -51.826508 -926
13.636003 11.799969 -51.824520 -914
13.639771 11.835958 -51.841461 -906
13.641200 11.863734 -51.835213 -899
13.641057 11.891809 -51.839634 -887
13.643088 11.927605 -51.849976 -905
13.645025 11.955237 -51.857540 -895
13.641624 11.985193 -51.856747 -860
13.646638 12.019038 -51.857018 -892
13.643610 12.045065 -51.867107 -888
13.648367 12.077605 -51.875893 -907
13.651318 12.112884 -51.880219 -898
13.652642 12.142700 -51.883091 -890
13.649859 12.171765 -51.889393 -895
13.650393 12.201307 -51.894016 -878
13.652656 12.231392 -51.886185 -881
13.656782 12.262379 -51.902061 -925
13.654478 12.292996 -51.900692 -862
13.660927 12.329832 -51.913540 -877
13.654277 12.353573 -51.905144 -927
13.658323 12.385087 -51.908836 -937
13.662708 12.416397 -51.925694 -934
13.661366 12.450585 -51.925625 -946
0.000000 0.000000 0.000000 0
13.665189 12.513656 -51.931084 -958
13.664552 12.539504 -51.935986 -948
13.665410 12.571493 -51.939484 -934
13.666746 12.600552 -51.949528 -932
13.669960 12.637329 -51.945335 -896
13.666656 12.664643 -51.954422 -909
0.000000 0.000000 0.000000 0
13.669913 12.728081 -51.955353 -996
13.674743 12.757010 -51.969131 -862
13.671019 12.785441 -51.971870 -928
13.673859 12.816461 -51.975731 -977
13.674760 12.848779 -51.974632 -910
13.677618 12.881028 -51.980949 -910
13.676618 12.911226 -51.982143 -885
13.678652 12.942466 -51.992458 -880
13.679131 12.974340 -51.992138 -890
13.679459 13.004551 -51.998371 -917
13.681416 13.034488 -52.008396 -861
13.685399 13.068142 -52.011837 -971
13.680265 13.095815 -52.014015 -900
13.683536 13.128248 -52.012363 -900
13.684544 13.158051 -52.016411 -914
13.689156 13.192847 -52.027012 -913
13.685633 13.220907 -52.032921 -866
13.686859 13.248467 -52.035393 -905
13.689800 13.284980 -52.037277 -907
13.688795 13.318304 -52.045628 -905
13.691696 13.345172 -52.047295 -920
13.693230 13.378857 -52.050972 -909
13.695836 13.411816 -52.053959 -907
13.694456 13.440468 -52.056072 -899
13.697481 13.470647 -52.060623 -928
13.696471 13.507275 -52.068981 -934
13.699393 13.538665 -52.073135 -957
13.700113 13.568282 -52.078468 -906
13.703408 13.600193 -52.079269 -912
13.703728 13.628732 -52.085472 -894
13.703457 13.661263 -52.087055 -926
13.700718 13.688592 -52.086418 -905
13.704813 13.723692 -52.099815 -910
13.707572 13.758938 -52.100998 -903
13.706684 13.786917 -52.104984 -925
13.707343 13.818455 -52.112484 -936
13.706119 13.846119 -52.115200 -966
13.712122 13.880871 -52.126289 -948
13.709973 13.911398 -52.130299 -979
13.712745 13.945392 -52.133896 -935
13.714445 13.975530 -52.142952 -975
13.716811 14.009146 -52.145000 -1067
13.718017 14.041441 -52.149807 -1076
0.000000 0.000000 0.000000 0
0.000000 0.000000 0.000000 0
0.000000 0.000000 0.000000 0
0.000000 0.000000 0.000000 0
0.000000 0.000000 0.000000 0
0.000000 0.000000 0.000000 0
0.000000 0.000000 0.000000 0
0.000000 0.000000 0.000000 0
0.000000 0.000000 0.000000 0
0.000000 0.000000 0.000000 0
0.000000 0.000000 0.000000 0
0.000000 0.000000 0.000000 0
0.000000 0.000000 0.000000 0
0.000000 0.000000 0.000000 0
0.000000 0.000000 0.000000 0
0.000000 0.000000 0.000000 0
0.000000 0.000000 0.000000 0
0.000000 0.000000 0.000000 0
0.000000 0.000000 0.000000 0
0.000000 0.000000 0.000000 0
0.000000 0.000000 0.000000 0
0.000000 0.000000 0.000000 0
0.000000 0.000000 0.000000 0
0.000000 0.000000 0.000000 0
0.000000 0.000000 0.000000 0
0.000000 0.000000 0.000000 0
0.000000 0.000000 0.000000 0
0.000000 0.000000 0.000000 0
0.000000 0.000000 0.000000 0
0.000000 0.000000 0.000000 0
0.000000 0.000000 0.000000 0
0.000000 0.000000 0.000000 0
0.000000 0.000000 0.000000 0
0.000000 0.000000 0.000000 0
0.000000 0.000000 0.000000 0
0.000000 0.000000 0.000000 0
0.000000 0.000000 0.000000 0
0.000000 0.000000 0.000000 0
0.000000 0.000000 0.000000 0
0.000000 0.000000 0.000000 0
0.000000 0.000000 0.000000 0
0.000000 0.000000 0.000000 0
0.000000 0.000000 0.000000 0
0.000000 0.000000 0.000000 0
13.877461 7.036259 -52.547054 -942
13.873078 7.060070 -52.540306 -920
13.874470 7.090631 -52.531403 -900
13.871255 7.117544 -52.519482 -877
13.870264 7.148077 -52.515995 -885
13.866755 7.173265 -52.505352 -899
13.863453 7.202273 -52.500320 -841
13.864763 7.232772 -52.491138 -831
13.859703 7.253402 -52.484184 -847
13.858795 7.284277 -52.478619 -879
13.858518 7.313928 -52.468231 -875
13.852294 7.338904 -52.466515 -925
13.857191 7.370959 -52.458904 -894
13.853495 7.398198 -52.459553 -885
13.851074 7.426697 -52.445839 -891
13.847986 7.455479 -52.439220 -851
13.843716 7.477743 -52.435253 -873
13.844443 7.507266 -52.423874 -865
13.841153 7.533441 -52.416451 -881
13.839748 7.564318 -52.406601 -851
13.840353 7.591918 -52.399544 -857
13.835173 7.620792 -52.389790 -929
13.829743 7.644261 -52.381443 -865
13.830545 7.676305 -52.375160 -981
13.828691 7.704422 -52.363605 -892
13.826898 7.732601 -52.357059 -944
13.826535 7.757816 -52.351116 -887
13.822462 7.783220 -52.343117 -908
13.823213 7.811253 -52.343800 -891
13.819309 7.840712 -52.329296 -877
13.813065 7.866545 -52.325050 -909
13.815222 7.899005 -52.321518 -903
13.817078 7.926893 -52.312016 -840
13.813103 7.955096 -52.302013 -894
13.810997 7.984370 -52.299084 -875
13.807709 8.011718 -52.291672 -855
13.807679 8.039801 -52.279835 -864
13.803184 8.065535 -52.270233 -863
13.802769 8.094481 -52.268909 -895
13.798354 8.116253 -52.261967 -886
13.802674 8.149837 -52.257072 -1286
14.299178 8.472574 -54.138126 -920
14.277606 8.490701 -54.079018 -1050
14.259712 8.506879 -54.001633 -953
14.241786 8.529552 -53.934074 -886
14.222328 8.546642 -53.873001 -903
14.202520 8.565200 -53.800739 -885
14.189785 8.586577 -53.733112 -913
14.168367 8.603289 -53.667042 -937
14.155607 8.626430 -53.599384 -926
14.134941 8.642722 -53.531216 -870
14.117705 8.662282 -53.458908 -947
14.098267 8.681625 -53.390495 -891
14.079450 8.696675 -53.331699 -920
14.064810 8.721322 -53.264385 -914
14.044888 8.733551 -53.196499 -926
14.032219 8.757903 -53.131809 -915
14.012812 8.776908 -53.063488 -915
13.996759 8.795556 -53.000557 -914
13.976768 8.812531 -52.932411 -909
13.957292 8.830261 -52.873463 -884
13.938961 8.845381 -52.801884 -942
13.924401 8.866479 -52.739788 -871
13.905813 8.883952 -52.684128 -895
13.891448 8.903280 -52.615547 -917
13.872154 8.920424 -52.554775 -794
13.860598 8.942189 -52.501667 -883
13.846610 8.963965 -52.441776 -880
13.832486 8.983370 -52.390957 -875
13.811741 8.998698 -52.324638 -903
13.801086 9.021597 -52.279762 -874
13.790168 9.040481 -52.221935 -899
13.772409 9.061176 -52.162159 -895
13.755770 9.077405 -52.101788 -895
13.742666 9.098952 -52.042927 -874
13.726731 9.116305 -51.989975 -899
13.712244 9.136509 -51.935387 -853
13.696189 9.154985 -51.874866 -866
13.682770 9.173144 -51.819569 -845
13.666100 9.194414 -51.754391 -867
13.650373 9.213874 -51.704559 -846
13.628632 9.225002 -51.617764 -799
13.594752 9.232028 -51.499210 -995
13.579035 9.249530 -51.435242 -906
13.581172 9.280776 -51.441219 -888
13.579158 9.305591 -51.450268 -885
13.583618 9.338533 -51.450935 -849
13.581732 9.366395 -51.448738 -847
13.587065 9.397021 -51.464428 -868
13.588621 9.429777 -51.468224 -867
13.588546 9.459962 -51.468182 -857
13.588762 9.487676 -51.471577 -853
13.588041 9.516153 -51.483196 -904
13.595703 9.548336 -51.488888 -879
13.593472 9.575582 -51.490082 -874
13.594116 9.605890 -51.504528 -884
13.595914 9.632311 -51.499771 -873
13.596385 9.667268 -51.515957 -887
13.599881 9.697379 -51.510582 -838
13.601681 9.724857 -51.522305 -881
13.601544 9.755706 -51.522041 -886
13.602809 9.785103 -51.534119 -895
13.605881 9.814966 -51.541260 -882
13.609866 9.849421 -51.549538 -873
13.607215 9.874592 -51.549133 -870
13.610948 9.907875 -51.561153 -858
13.612307 9.938012 -51.566532 -910
13.614812 9.966709 -51.573868 -868
13.615712 9.998395 -51.577522 -888
13.617649 10.030662 -51.587460 -869
13.617889 10.056918 -51.588581 -889
13.618073 10.086290 -51.596577 -889
13.622465 10.116160 -51.599274 -890
13.619576 10.148978 -51.609844 -879
13.621694 10.174556 -51.613327 -826
13.625324 10.208054 -51.615520 -879
13.626888 10.236595 -51.621655 -858
13.629737 10.270219 -51.627975 -884
13.630787 10.297153 -51.632164 -913
13.632748 10.328520 -51.639816 -888
13.633775 10.359195 -51.643940 -902
13.634565 10.391570 -51.647190 -873
13.636173 10.422710 -51.653507 -877
13.635570 10.445223 -51.660847 -908
13.636698 10.480742 -51.660675 -843
13.634661 10.507083 -51.672066 -870
13.638900 10.538579 -51.669445 -872
13.641564 10.571844 -51.679779 -897
13.643909 10.598359 -51.684132 -887
13.643299 10.628254 -51.693867 -899
13.643035 10.660480 -51.702579 -861
13.649398 10.692773 -51.703251 -861
13.647888 10.718422 -51.707199 -853
13.649704 10.754412 -51.711983 -871
13.652411 10.781273 -51.717697 -859
13.652165 10.812662 -51.721737 -878
13.650895 10.839628 -51.728970 -904
13.655727 10.874034 -51.730953 -865
13.657397 10.902924 -51.737503 -915
13.659940 10.935657 -51.747364 -879
13.657719 10.962230 -51.746265 -923
13.659339 10.995975 -51.745564 -857
13.659881 11.021962 -51.759632 -906
13.662360 11.052505 -51.764507 -893
13.660602 11.081837 -51.767551 -909
13.662538 11.114475 -51.770405 -880
13.664419 11.146601 -51.770657 -884
13.666852 11.174812 -51.782440 -891
13.670280 11.207273 -51.783825 -893
13.670772 11.238501 -51.795383 -877
13.670067 11.265436 -51.795296 -856
13.674017 11.298841 -51.801018 -873
13.673756 11.327124 -51.807350 -877
13.673057 11.356318 -51.812046 -894
13.674740 11.384153 -51.818615 -875
13.677403 11.418773 -51.824223 -905
13.677909 11.444108 -51.831062 -898
13.680248 11.480657 -51.830708 -843
13.679428 11.506300 -51.830181 -923
13.681705 11.540586 -51.846153 -888
13.682306 11.572906 -51.843937 -916
13.682989 11.602591 -51.856224 -906
13.686164 11.636122 -51.859005 -885
13.684258 11.663371 -51.866230 -913
13.688606 11.696431 -51.866337 -893
13.691848 11.724471 -51.878796 -896
13.689931 11.758090 -51.874180 -852
13.691161 11.785813 -51.888531 -891
13.693381 11.817717 -51.880569 -835
13.694942 11.851700 -51.891464 -930
13.690795 11.873676 -51.894928 -832
13.697701 11.911055 -51.902351 -916
13.697789 11.942793 -51.902927 -896
13.696655 11.965893 -51.910683 -911
13.698576 12.001004 -51.908722 -881
13.701617 12.032944 -51.918091 -882
13.705546 12.065167 -51.928440 -892
13.701859 12.093160 -51.924206 -901
13.707417 12.129859 -51.931259 -860
13.707138 12.156670 -51.935158 -921
13.707691 12.187634 -51.937481 -934
13.708561 12.219068 -51.950497 -931
13.709360 12.249754 -51.951382 -876
13.711313 12.279350 -51.961357 -894
13.712108 12.310163 -51.959846 -874
13.714272 12.342632 -51.968277 -903
13.713932 12.374026 -51.969601 -903
13.716064 12.402571 -51.980251 -881
13.715593 12.433441 -51.976326 -919
13.719697 12.467834 -51.989723 -917
0.000000 0.000000 0.000000 0
13.723510 12.530977 -51.995117 -939
13.721683 12.556514 -51.993156 -877
13.718167 12.587554 -51.999100 -931
13.722928 12.620484 -52.005466 -910
13.724421 12.652928 -52.016109 -969
13.723031 12.679094 -52.011055 -923
0.000000 0.000000 0.000000 0
13.726816 12.743802 -52.028217 -968
13.725008 12.771231 -52.028725 -932
13.726439 12.801414 -52.031982 -895
13.724909 12.832407 -52.031185 -906
13.730831 12.865989 -52.039566 -881
13.732134 12.896637 -52.044720 -945
13.733470 12.929624 -52.057144 -944
13.735361 12.958734 -52.052624 -880
13.734085 12.989462 -52.050411 -898
13.737454 13.022841 -52.061020 -1000
13.741625 13.054691 -52.067509 -880
13.740929 13.085917 -52.069866 -918
13.740843 13.117654 -52.076916 -895
13.741980 13.146162 -52.086182 -876
13.745525 13.181404 -52.087955 -903
13.744447 13.211668 -52.088856 -878
13.744485 13.239728 -52.096348 -877
13.749430 13.273940 -52.098644 -895
13.746444 13.303302 -52.104229 -875
13.750962 13.338902 -52.109665 -938
13.749375 13.365441 -52.111008 -953
13.749433 13.395731 -52.111450 -932
0.000000 0.000000 0.000000 0
13.748170 13.455355 -52.116638 -926
13.753098 13.490785 -52.123631 -932
13.754098 13.525194 -52.130047 -887
13.752482 13.554268 -52.133675 -1068
13.756701 13.585826 -52.137943 -898
13.756184 13.614076 -52.145721 -875
13.758898 13.646688 -52.146698 -935
13.756166 13.678390 -52.153286 -935
13.758010 13.710036 -52.155724 -916
13.761871 13.741244 -52.161015 -1058
13.762398 13.775305 -52.165642 -923
13.766085 13.807657 -52.170284 -922
13.765991 13.837834 -52.174923 -1050
13.766551 13.869328 -52.182037 -932
13.770609 13.904040 -52.188095 -1005
13.766709 13.930742 -52.192612 -1051
13.772904 13.965267 -52.197216 -936
13.770570 13.995028 -52.200527 -1195
13.772867 14.025968 -52.204666 -981
0.000000 0.000000 0.000000 0
0.000000 0.000000 0.000000 0
0.000000 0.000000 0.000000 0
0.000000 0.000000 0.000000 0
0.000000 0.000000 0.000000 0
0.000000 0.000000 0.000000 0
0.000000 0.000000 0.000000 0
0.000000 0.000000 0.000000 0
0.000000 0.000000 0.000000 0
0.000000 0.000000 0.000000 0
0.000000 0.000000 0.000000 0
0.000000 0.000000 0.000000 0
0.000000 0.000000 0.000000 0
0.000000 0.000000 0.000000 0
0.000000 0.000000 0.000000 0
0.000000 0.000000 0.000000 0
0.000000 0.000000 0.000000 0
0.000000 0.000000 0.000000 0
0.000000 0.000000 0.000000 0
0.000000 0.000000 0.000000 0
0.000000 0.000000 0.000000 0
0.000000 0.000000 0.000000 0
0.000000 0.000000 0.000000 0
0.000000 0.000000 0.000000 0
0.000000 0.000000 0.000000 0
0.000000 0.000000 0.000000 0
0.000000 0.000000 0.000000 0
0.000000 0.000000 0.000000 0
0.000000 0.000000 0.000000 0
0.000000 0.000000 0.000000 0
0.000000 0.000000 0.000000 0
0.000000 0.000000 0.000000 0
0.000000 0.000000 0.000000 0
0.000000 0.000000 0.000000 0
0.000000 0.000000 0.000000 0
0.000000 0.000000 0.000000 0
0.000000 0.000000 0.000000 0
0.000000 0.000000 0.000000 0
0.000000 0.000000 0.000000 0
0.000000 0.000000 0.000000 0
0.000000 0.000000 0.000000 0
0.000000 0.000000 0.000000 0
0.000000 0.000000 0.000000 0
13.944057 6.991097 -52.634632 -884
13.940204 7.019605 -52.625153 -940
13.934855 7.045762 -52.617214 -895
13.938905 7.073394 -52.613522 -884
13.935102 7.102232 -52.601837 -902
13.932271 7.130011 -52.591412 -911
13.931009 7.158891 -52.589298 -875
13.927037 7.181391 -52.581722 -929
13.926908 7.214922 -52.571934 -912
13.924613 7.244206 -52.558746 -932
13.921220 7.266365 -52.558128 -891
13.920837 7.295704 -52.549747 -902
13.916242 7.322516 -52.537453 -900
13.914529 7.351453 -52.526443 -884
13.912099 7.378465 -52.524719 -880
13.909499 7.410036 -52.515186 -902
13.908789 7.439187 -52.510361 -883
13.905105 7.467059 -52.496712 -909
13.907210 7.496141 -52.495316 -884
13.904063 7.518710 -52.488438 -851
13.895022 7.542812 -52.476120 -876
13.900558 7.577125 -52.475727 -834
13.899582 7.603307 -52.467487 -848
13.893655 7.628744 -52.459724 -846
13.893219 7.658617 -52.451153 -877
13.891578 7.688478 -52.442833 -936
13.889113 7.716665 -52.436169 -881
13.887936 7.744910 -52.429588 -930
13.885399 7.770271 -52.425018 -873
13.880554 7.795041 -52.421322 -884
13.880092 7.823593 -52.407871 -868
13.884406 7.855079 -52.405266 -877
13.879121 7.881124 -52.397518 -878
13.873808 7.907770 -52.389671 -900
13.872421 7.938076 -52.384705 -902
13.870052 7.965898 -52.371227 -884
13.872429 7.995420 -52.368492 -860
13.868779 8.023230 -52.359753 -878
13.866669 8.049779 -52.359192 -907
13.865114 8.081159 -52.348808 -899
13.860942 8.103397 -52.340443 -907
13.856108 8.128075 -52.331978 -1272
14.365706 8.458353 -54.243061 -906
14.345673 8.475910 -54.170181 -943
14.329454 8.495779 -54.099365 -898
14.311280 8.517148 -54.031067 -902
14.291659 8.534647 -53.954826 -909
14.275659 8.555516 -53.892269 -922
14.250369 8.570267 -53.821651 -899
14.238708 8.592704 -53.760715 -936
14.220313 8.612567 -53.689125 -921
14.202905 8.632040 -53.623699 -919
14.185843 8.649645 -53.554676 -940
14.167236 8.669257 -53.487183 -977
14.151638 8.688524 -53.421265 -916
14.131766 8.705414 -53.353851 -924
14.111306 8.722503 -53.284191 -885
14.097285 8.745981 -53.221848 -949
14.079737 8.762351 -53.155872 -956
14.062037 8.781728 -53.089344 -879
14.041749 8.799388 -53.025154 -932
14.025358 8.818201 -52.951466 -891
14.006768 8.835663 -52.886395 -897
13.987921 8.853514 -52.832386 -913
13.975660 8.873352 -52.769497 -931
13.956129 8.891152 -52.696060 -878
13.941094 8.909229 -52.639561 -861
13.923956 8.927409 -52.572746 -944
13.906285 8.947325 -52.513512 -853
13.892619 8.968479 -52.457405 -862
13.873174 8.983398 -52.403378 -859
13.860133 9.003835 -52.347229 -877
13.847307 9.026229 -52.291920 -852
13.829791 9.044832 -52.237972 -900
13.819280 9.064591 -52.181866 -956
13.804214 9.082377 -52.122875 -893
13.788159 9.103187 -52.060184 -909
13.774154 9.121318 -52.007565 -857
13.757346 9.139946 -51.951492 -858
13.741528 9.156997 -51.889668 -892
13.723894 9.175894 -51.839912 -903
13.707073 9.197501 -51.776699 -858
13.691943 9.215674 -51.715111 -825
13.659944 9.221686 -51.578098 -983
13.636155 9.232890 -51.500313 -889
13.637357 9.265656 -51.493362 -902
13.635043 9.288830 -51.503616 -889
13.637625 9.322152 -51.499527 -846
13.638183 9.350441 -51.513599 -866
13.641662 9.379017 -51.517551 -870
13.643223 9.411186 -51.521339 -899
13.643581 9.440651 -51.527630 -877
13.644002 9.469582 -51.527096 -845
13.642586 9.497594 -51.536079 -903
13.649388 9.533316 -51.540863 -903
13.650056 9.559935 -51.555347 -875
13.653448 9.591828 -51.556637 -859
13.651797 9.616239 -51.555309 -855
13.653389 9.645206 -51.568592 -906
13.657379 9.683126 -51.572174 -876
13.655824 9.709894 -51.580635 -887
13.659361 9.741118 -51.584816 -861
13.660294 9.770504 -51.593266 -885
13.662903 9.798820 -51.598621 -919
13.664809 9.829339 -51.606049 -882
13.666598 9.863510 -51.613071 -909
13.667141 9.892870 -51.617691 -863
13.668885 9.921649 -51.622143 -879
13.669250 9.949660 -51.626099 -856
13.673241 9.978627 -51.634315 -855
13.669157 10.011779 -51.640362 -863
13.671095 10.034723 -51.643147 -891
13.675939 10.072008 -51.652275 -892
13.674733 10.096664 -51.654999 -873
13.678514 10.131567 -51.664810 -857
13.681390 10.163143 -51.673546 -873
13.682284 10.192637 -51.674801 -866
13.682294 10.220666 -51.675056 -885
13.682830 10.249781 -51.684376 -887
13.686524 10.282766 -51.686783 -894
13.688695 10.315380 -51.697575 -877
13.691027 10.343510 -51.704231 -906
13.688898 10.371104 -51.705849 -894
13.688592 10.402144 -51.712013 -879
13.691154 10.433163 -51.717205 -869
13.688746 10.458696 -51.717751 -868
13.693248 10.494075 -51.725578 -920
13.700080 10.526168 -51.735069 -931
13.698668 10.555617 -51.739403 -918
13.697506 10.586250 -51.739990 -863
13.701445 10.617504 -51.745651 -891
13.704013 10.643887 -51.755535 -885
13.703191 10.676233 -51.755051 -882
13.700411 10.703986 -51.763657 -896
13.707918 10.737678 -51.770988 -886
13.704148 10.767022 -51.778244 -873
13.709355 10.797345 -51.781582 -887
13.707971 10.825371 -51.781307 -869
13.709803 10.857993 -51.790833 -852
13.709350 10.886148 -51.794071 -877
13.714701 10.916931 -51.802670 -918
13.713066 10.947767 -51.803837 -840
13.713372 10.975771 -51.812294 -815
13.716552 11.009717 -51.815086 -900
13.717295 11.036062 -51.818100 -914
13.721672 11.068643 -51.823048 -898
13.721355 11.099961 -51.829170 -848
13.723390 11.131152 -51.837086 -906
13.724455 11.163614 -51.838993 -860
13.724058 11.191611 -51.847172 -910
13.728628 11.225044 -51.852840 -888
13.723532 11.250986 -51.855099 -870
13.729015 11.282974 -51.859467 -888
13.728262 11.314806 -51.861603 -871
13.729316 11.341799 -51.861057 -880
13.728819 11.373124 -51.875969 -871
13.736839 11.406591 -51.880447 -894
13.734676 11.435263 -51.879623 -878
13.734125 11.462466 -51.889576 -882
13.736861 11.497501 -51.890697 -871
13.736420 11.522933 -51.901058 -874
13.739176 11.559272 -51.902264 -876
13.741256 11.592604 -51.910355 -837
13.742722 11.618266 -51.908993 -883
13.744453 11.651686 -51.920494 -919
13.746313 11.682619 -51.923012 -885
13.748584 11.713510 -51.934174 -871
13.747716 11.741737 -51.933479 -889
13.745269 11.771920 -51.924500 -904
13.749313 11.805899 -51.937641 -891
13.749432 11.833341 -51.947765 -913
13.753827 11.867415 -51.955120 -846
13.752732 11.894474 -51.960670 -899
13.752307 11.925038 -51.961666 -888
13.754337 11.959132 -51.957741 -884
13.753159 11.983744 -51.972424 -925
13.758832 12.019502 -51.975143 -875
13.757977 12.049877 -51.983990 -931
13.759845 12.077668 -51.988873 -896
